# .PCD v0.7 - Point Cloud Data file format
VERSION 0.7
FIELDS x y z intensity
SIZE 4 4 4 4
TYPE F F F F
COUNT 1 1 1 1
WIDTH 1140
HEIGHT 1
VIEWPOINT 0 0 0 1 0 0 0
POINTS 1140
DATA ascii
78.369583 -48.131264 1.6049374 2.0261753
78.99649 -48.221107 1.8654312 2.0730591
82.387672 -49.537033 1.7565246 1.502799
76.647522 -46.671879 2.1212859 1.3311055
77.450264 -47.166115 1.9222198 2.2715001
79.438843 -47.032772 1.7642226 1.0265608
80.510345 -46.841789 2.5505626 2.6527176
82.895058 -46.931488 1.8729138 6.2933698
76.146286 -46.116463 1.9829459 2.1637979
77.639496 -45.434101 2.1167161 1.7325906
79.683609 -45.798321 2.5826845 1.0546708
80.775955 -45.468132 2.3657429 1.4227946
81.925461 -44.980225 2.3739424 1.4171554
83.370964 -45.116615 2.5536847 8.2813864
76.611954 -44.15197 2.2887485 3.399894
77.847252 -44.633034 1.8137186 1.9131784
79.186386 -44.015282 1.8850925 2.0080538
81.230515 -44.09758 2.001265 2.53877
82.098358 -44.739723 2.5111785 1.1214886
79.685448 -43.00156 1.7914038 1.008219
82.575577 -42.944374 1.7601061 1.0078552
75.654106 -36.29351 2.5548506 6.0794702
95.945961 -34.117805 1.6933733 3.4768615
96.548859 -34.244698 2.1388373 2.1039193
98.117767 -33.699009 2.9183288 1.0140036
95.264694 -32.835884 1.9012632 6.0383368
96.438873 -32.810425 1.9917507 8.5830784
98.230865 -33.442947 2.8702068 7.0664577
99.465714 -32.394722 2.5703866 2.2768817
94.161743 -30.540367 2.5955632 1.1077888
94.504807 -30.472027 2.1254573 9.0857725
96.839294 -31.343439 2.0872617 2.1601772
98.810692 -31.696592 2.7004397 1.0223953
99.670151 -30.541842 2.4181647 10.044167
93.681892 -29.164677 2.5935578 1.0048946
95.868248 -29.700748 2.6303186 1.0401285
96.821976 -29.040974 2.6833229 1.0048628
99.062027 -29.669735 2.2702894 2.0676475
99.661575 -29.59903 2.2683489 3.7571259
100.86278 -28.963955 2.4045119 2.0210276
94.04068 -28.704998 2.5729117 6.4401355
95.208412 -27.440012 3.1342814 1.0252079
96.594963 -28.439781 2.3849902 1.599839
98.435631 -28.341303 2.7282789 4.8131666
100.17975 -28.516918 2.7036052 1.9634928
100.94691 -28.002556 2.640758 1.6073322
93.744446 -25.885994 3.1592603 8.0458546
96.755386 -26.355255 2.5840023 5.2469444
98.034088 -26.295475 2.2018898 2.826498
99.312141 -25.735373 2.7966516 9.043622
95.83725 -25.034235 2.7347369 4.8112512
96.341492 -25.136124 2.618077 4.3292723
97.822311 -25.194454 2.9336486 8.3098726
99.204597 -25.066628 3.107058 1.0248139
78.192558 -47.214909 3.9049807 4.8024607
78.594513 -46.819016 4.0092626 4.0511446
80.853256 -46.551991 3.9291615 4.3017712
77.53653 -45.526947 4.3732748 3.1753488
78.850067 -45.210854 3.696353 5.820117
81.001251 -45.766167 4.0160847 4.2993584
82.072426 -45.473213 3.3819208 6.1762066
78.062851 -44.776348 3.3809404 5.550952
79.282654 -44.627403 3.9482903 5.0696716
112.54868 -41.294853 3.6242838 1.0299067
119.08552 -35.896381 4.1124434 5.0463581
121.06038 -36.05793 3.7945375 7.0453701
97.086418 -34.713341 3.9568601 7.0536103
97.6978 -34.867081 3.8866515 6.9508381
77.50589 -33.180538 3.2427783 5.0789757
94.918175 -32.074165 4.4700561 6.0462923
97.070816 -32.950069 4.216186 6.5040483
98.08194 -33.173523 3.2504914 1.0270751
77.326546 -31.762695 3.2476983 5.0788736
94.810684 -31.591404 3.8353696 7.0586677
96.578156 -31.87007 3.4919941 7.5447879
100.55587 -30.79524 3.6039026 8.0443783
94.054794 -29.111149 3.9286354 6.9506822
95.668198 -29.537476 3.5462456 6.9203186
96.781769 -29.276314 3.2883587 7.9663138
97.981369 -28.927435 3.6017027 7.8324966
99.335304 -29.698502 3.4968042 8.0474911
94.117828 -28.066589 3.7772164 6.6747208
95.089569 -27.874569 4.1349082 6.1780314
96.365013 -28.671097 4.4748049 6.2348547
98.431557 -28.445921 3.5321808 6.5438385
99.78154 -28.484953 3.2728877 1.0250304
94.008728 -25.831913 3.4508662 7.9919715
95.632919 -27.01346 4.4172077 6.296957
96.581573 -27.001266 3.6473069 7.4689579
97.939247 -25.753111 3.7979693 6.0445752
100.38391 -25.664536 4.3962536 6.2950592
93.786713 -25.259087 4.0087261 6.7964516
95.190399 -25.284611 3.6878498 7.4370027
97.204239 -25.207924 3.3149519 6.7943435
98.0289 -25.357872 3.7893939 6.9200754
100.15967 -25.419491 4.3977537 6.3789539
100.84118 -25.104088 4.486999 6.0450273
78.374603 -44.72543 4.9121819 2.0508773
78.602036 -44.548317 4.9329643 2.0505772
96.811676 -34.21843 5.603548 3.0465963
94.980019 -32.575531 4.9944968 5.0452642
98.703613 -32.489628 5.1388135 5.0447149
99.262688 -32.945732 5.0731778 5.0444942
95.3992 -31.724449 5.4295187 4.0527596
96.457489 -31.161301 5.5839348 4.0447216
93.663116 -28.934837 5.4551458 3.9197021
94.938782 -29.052864 5.3960891 3.9696608
97.475128 -30.131153 5.1379771 5.0491195
92.798912 -28.19743 5.7874284 3.0446465
93.411438 -28.366428 5.9500198 3.0462451
94.933777 -28.260452 5.1605315 4.0269194
96.996552 -27.677948 5.3289137 3.5451734
95.678993 -27.02458 5.1050062 4.5440898
96.514137 -26.475597 5.5061121 4.0027781
97.896851 -26.509983 5.7938075 3.5460515
95.698311 -25.257311 5.9997931 3.0468252
96.21167 -25.45809 6.3803463 2.0474217
98.30246 -25.192551 6.1308336 2.5467529
99.113007 -29.015926 6.6548963 2.0458283
93.712868 -28.272797 6.5661273 1.5446053
94.80645 -27.711216 6.8490725 1.1693912
97.660057 -28.516714 7.1078606 1.0441281
95.218498 -26.930609 6.9292202 1.0442977
96.774765 -26.473593 6.9080658 1.0435874
98.274506 -26.396481 6.9894733 1.0471494
99.255196 -27.068064 7.0308638 1.0438147
96.6642 -25.191858 6.4518962 2.0471568
98.832321 -25.35511 6.4936848 1.9843376
-75.490974 -21.135147 -6.61834 15.078812
-75.272072 -20.297211 -6.599997 15.078914
-75.264084 -17.296648 -6.7014894 16.084305
-75.089729 -16.881506 -6.6899252 16.084356
-84.438286 -15.451214 -6.4877129 12.083121
-84.560722 -14.894442 -6.4988298 12.083199
-75.810379 -11.422366 -6.7602048 16.077511
-79.447617 1.3883972 -6.4935937 15.087174
-79.106659 2.1245837 -6.4803138 15.087277
-76.447769 -24.678741 -5.7690082 7.0007463
-87.451508 -21.161098 -6.0503201 11.08255
-87.491821 -20.54517 -6.0563583 11.082626
-86.414886 -2.140939 -5.7850184 11.089842
-86.370514 -1.4455901 -5.787827 11.089918
-78.733322 -0.40564764 -5.7280746 17.067348
-89.095543 0.55428654 -6.0805135 14.079648
-78.713142 0.14573985 -5.7229366 17.067438
-89.040016 1.221501 -6.077023 14.079724
-83.625656 4.4107542 -6.2566557 12.09045
-79.832283 5.1444302 -6.2408423 12.08033
-79.462112 5.7809653 -6.2216864 12.080407
-80.12925 17.113094 -5.6921425 8.0003586
-87.201385 17.689144 -6.0175958 10.087046
-80.110641 17.857388 -5.694581 8.0004597
-77.778801 18.233112 -6.2185111 12.082259
-77.390602 18.942242 -6.2038469 12.082355
-77.834091 21.979084 -6.1797748 11.087596
-85.702507 -7.3684802 -4.9054041 10.089214
-85.753716 -6.7004561 -4.9152637 10.089291
-87.479744 -6.0873203 -5.3083539 10.079127
-87.350998 -5.4363217 -5.3080072 10.079205
-78.554451 -4.1113634 -5.1340013 16.06675
-89.253151 -3.5098889 -5.4034534 13.07918
-78.608452 -3.483577 -5.1312523 16.066853
-75.982529 9.2505112 -5.25073 17.066782
-80.495789 12.517437 -5.1002569 6.9997535
-80.524902 13.171903 -5.1064181 6.9998426
-88.250511 18.860247 -5.0313034 9.0824366
-88.30764 19.228207 -5.0404506 9.0824881
-87.51664 -15.60476 -4.3396587 9.077445
-87.507057 -14.964719 -4.3459454 9.0775213
-85.994728 -12.175827 -4.6662579 12.085423
-76.044182 5.4483986 -4.6849117 16.06613
-75.951393 5.146769 -4.6810975 16.066078
-76.131699 5.8991675 -4.6879115 16.066206
-80.731979 7.6251101 -4.3601675 5.9991255
-80.728279 8.3187704 -4.3662338 5.9992142
-79.016808 13.232924 -4.466722 15.069535
-87.743065 14.078389 -4.1263523 8.0817738
-78.983192 13.790082 -4.4652958 15.069624
-87.734413 14.644592 -4.1354551 8.081851
-85.652382 19.667505 -4.5832195 9.0924587
-85.572548 20.276922 -4.5887713 9.092535
-79.475151 22.034107 -4.5775185 5.0035162
-76.402031 21.963736 -4.126503 15.068904
-76.432404 22.518782 -4.1306696 15.068994
-90.130142 23.516357 -4.0977364 11.082802
-90.129654 24.206675 -4.1056018 11.082891
-85.552521 -21.97694 -3.2029133 10.08411
-85.552414 -21.180922 -3.2135282 10.084212
-87.183365 -20.596457 -3.4123218 8.0768337
-87.237816 -19.965475 -3.422637 8.076911
-87.35009 -9.378171 -3.251317 7.0840092
-87.362656 -8.7883768 -3.2606726 7.0840855
-86.875626 -4.8088722 -3.936399 8.0845909
-86.741165 -4.1954637 -3.9388273 8.0846672
-80.621902 3.5935605 -3.72576 4.9986067
-79.416801 5.9194546 -3.3837864 13.068365
-79.38176 6.5534029 -3.3798344 13.068467
-79.200638 9.3126135 -3.9006171 14.06891
-86.091202 14.809982 -3.7182772 8.0918493
-86.043381 15.428804 -3.7270961 8.0919256
-79.265038 17.234943 -3.8342264 4.0028167
-79.19294 17.805031 -3.8327897 4.0028934
-76.49556 18.517426 -3.5659132 14.068334
-88.311874 23.611069 -3.6736596 7.0830741
-88.385406 24.347164 -3.6912963 7.0831704
-86.95314 -24.847639 -2.6640308 7.0763292
-86.367508 -23.362867 -3.1463835 9.079051
-86.291382 -22.717846 -3.1494641 9.0791273
-77.157082 -16.780603 -2.9104652 3.0016103
-77.262863 -15.916836 -2.9194782 3.0017123
-87.176979 -13.645643 -2.4062979 6.0834546
-86.476036 2.2615592 -2.9800627 9.0874157
-78.950714 2.0535488 -2.6866813 12.067749
-86.493843 2.9935815 -2.9945946 9.0875177
-86.387115 10.079476 -2.9989288 7.0912704
-86.377808 10.702847 -3.0107737 7.0913467
-89.830772 13.295413 -2.4050558 9.0815144
-75.937988 14.906868 -3.0324616 13.067747
-87.874893 19.08882 -2.8228776 6.0824776
-88.002235 19.633673 -2.8381469 6.08255
-80.434341 19.859928 -2.5825007 3.0007415
-88.047165 20.000111 -2.8470321 6.0825982
-80.563087 20.448833 -2.5965784 3.0008304
-87.883171 22.810249 -2.7566619 5.0877481
-88.046906 23.541187 -2.7762737 5.0878496
-76.988182 -22.245394 -2.0161827 2.0010204
-76.961548 -21.350689 -2.0239716 2.0011096
-87.134056 -14.238126 -2.3949249 6.0833778
-86.374489 -2.4920135 -2.1008511 8.0867481
-79.200294 -1.6081309 -2.224596 11.06716
-79.202507 -0.97500086 -2.2201998 11.067262
-86.634933 4.5853562 -2.1133907 6.0906162
-76.457314 7.5611901 -1.9433292 11.06649
-76.446861 8.0843678 -1.9405272 11.06658
-89.811035 12.473865 -2.3947334 9.0814133
-87.809502 14.773807 -2.1328404 5.0819125
-87.868896 15.510185 -2.1497004 5.0820093
-80.522781 15.497142 -1.7512076 2.0001411
-80.548882 16.232803 -1.7654116 2.0002427
-87.690567 18.260143 -1.8722833 4.0871167
-87.651245 18.997477 -1.8861707 4.0872178
-79.853661 24.29731 -1.3649676 0.0038562729
-79.845596 24.82045 -1.3702074 0.0039328849
-75.381523 -20.716181 -6.6091681 15.078863
-75.264084 -17.296648 -6.7014894 16.084305
-75.017509 -16.590145 -6.6855526 16.084394
-84.519905 -15.08003 -6.4951243 12.083173
-75.810379 -11.422366 -6.7602048 16.077511
-75.711136 -10.93573 -6.7476826 16.077562
-79.447617 1.3883972 -6.4935937 15.087174
-79.106659 2.1245837 -6.4803138 15.087277
-86.504143 7.0726514 -6.633213 15.080325
-76.447769 -24.678741 -5.7690082 7.0007463
-87.494965 -20.967325 -6.0541329 11.082576
-87.445229 -20.31679 -6.0547709 11.082652
-86.554649 -8.320673 -5.5662332 13.085964
-86.602386 -7.5743256 -5.5783367 13.086067
-85.728111 -7.0344682 -4.9103336 10.089252
-87.415375 -5.7618208 -5.3081808 10.079166
-89.253151 -3.5098889 -5.4034534 13.07918
-86.619011 -3.8877113 -6.2517624 14.086576
-78.581451 -3.7974701 -5.1326265 16.066801
-86.414886 -2.140939 -5.7850184 11.089842
-86.933769 -0.061391179 -4.806098 9.085227
-86.370514 -1.4455901 -5.787827 11.089918
-78.733322 -0.40564764 -5.7280746 17.067348
-89.62088 0.97270298 -5.3132648 13.080043
-89.058525 0.99909621 -6.0781865 14.0797
-86.856651 0.52447408 -4.8097253 9.0853033
-78.713142 0.14573985 -5.7229366 17.067438
-83.625656 4.4107542 -6.2566557 12.09045
-79.7089 5.3566136 -6.2344575 12.080356
-75.982529 9.2505112 -5.25073 17.066782
-80.515205 12.953744 -5.1043649 6.9998131
-80.123055 17.361191 -5.6929555 8.000392
-88.279076 19.044226 -5.0358772 9.0824623
-87.201385 17.689144 -6.0175958 10.087046
-77.520004 18.705866 -6.208735 12.082324
-77.834091 21.979084 -6.1797748 11.087596
-85.555664 -21.828829 -3.2050176 10.084129
-87.210587 -20.280966 -3.4174795 8.0768719
-85.972839 -17.107388 -4.0198569 11.084764
-87.511848 -15.284739 -4.342802 9.0774832
-87.356369 -9.0832739 -3.2559948 7.0840473
-86.875626 -4.8088722 -3.936399 8.0845909
-86.741165 -4.1954637 -3.9388273 8.0846672
-80.621902 3.5935605 -3.72576 4.9986067
-79.400513 6.0378342 -3.3826714 13.068384
-76.064743 5.5983753 -4.6854582 16.066154
-80.729507 8.0875473 -4.3642116 5.9991851
-79.200638 9.3126135 -3.9006171 14.06891
-88.130417 9.8955603 -3.4387596 7.0812182
-87.740181 14.267122 -4.1293864 8.0817995
-78.994385 13.604364 -4.4657712 15.069594
-86.067291 15.119393 -3.7226868 8.0918875
-79.216965 17.615002 -3.8332684 4.0028682
-76.495575 18.517427 -3.565913 14.068334
-85.612465 19.972214 -4.5859957 9.0924969
-79.467354 21.948824 -4.5769749 5.0035038
-76.402031 21.963736 -4.126503 15.068904
-90.130142 23.516359 -4.0977364 11.082802
-88.311874 23.611069 -3.6736596 7.0830741
-76.432404 22.518782 -4.1306696 15.068994
-90.129654 24.206675 -4.1056018 11.082891
-88.385406 24.347164 -3.6912963 7.0831704
-86.95314 -24.847639 -2.6640308 7.0763292
-86.329445 -23.040358 -3.1479239 9.0790892
-76.974869 -21.798042 -2.0200772 2.001065
-77.157082 -16.780603 -2.9104652 3.0016103
-77.262863 -15.916836 -2.9194782 3.0017123
-87.155518 -13.941885 -2.4006114 6.083416
-86.370651 -2.0589428 -2.1090698 8.0868082
-79.201035 -1.3970878 -2.2231307 11.067193
-86.481972 2.5055659 -2.9849067 9.0874491
-78.954643 2.1456718 -2.6862638 12.067764
-86.634933 4.5853562 -2.1133907 6.0906162
-76.457314 7.5611901 -1.9433292 11.06649
-76.446861 8.0843678 -1.9405272 11.06658
-86.382462 10.391161 -3.0048513 7.0913086
-89.811035 12.473863 -2.3947334 9.0814133
-89.830772 13.295413 -2.4050558 9.0815144
-87.849098 15.264726 -2.1440804 5.0819769
-80.531479 15.742363 -1.7559422 2.000175
-75.942558 14.995924 -3.0325687 13.067761
-87.664352 18.751699 -1.8815416 4.0871844
-87.974762 19.5742 -2.8360186 6.0825419
-80.498718 20.154381 -2.5895395 3.0007858
-87.992325 23.297543 -2.7697365 5.0878158
-79.849625 24.55888 -1.3675876 0.0038945789
-33.385059 23.352095 -14.065573 37.089558
-73.969864 -24.81971 -6.74473 14.077506
-63.875813 -24.978365 -6.6503286 20.082201
-73.912926 -24.355473 -6.7390833 14.077557
-69.046753 -14.561961 -6.557056 14.076577
-68.910828 -13.938454 -6.5452204 14.076653
-73.968674 -6.8338366 -6.5785112 13.083824
-54.580456 -24.480015 -6.2736416 21.058973
-46.721699 -24.425499 -5.9263563 16.075272
-44.308662 -24.409849 -5.8320551 21.07547
-38.94083 -24.356407 -5.7304463 29.027378
-37.679188 -24.512302 -5.7466583 31.043791
-34.079727 -24.704145 -5.6290164 32.039482
-46.614323 -23.674583 -5.90588 16.075361
-45.626408 -23.680862 -5.9394741 26.059399
-36.392811 -23.966064 -5.8158531 29.057739
-52.627151 -22.559324 -6.1290278 9.9986334
-39.152134 -22.531006 -5.619575 24.060371
-35.120815 -22.683775 -5.9161272 24.080082
-27.610886 -22.907843 -5.6268611 20.074392
-61.657528 -22.253061 -6.2714744 20.062366
-39.077522 -22.307077 -5.711184 30.028145
-37.044529 -22.122183 -5.6681418 27.388229
-36.521183 -22.222784 -5.6639643 18.075815
-35.068615 -22.096991 -5.8942618 24.080183
-44.312412 -20.880222 -5.9085793 27.06002
-39.092625 -21.139862 -5.7188573 31.028589
-38.764641 -19.200228 -5.619113 32.029255
-74.534615 -18.708611 -6.2282677 8.0011997
-38.883392 -19.058956 -5.6159039 32.029358
-74.653755 -18.084795 -6.2283616 8.001276
-44.309811 -17.737717 -5.993391 19.078934
-42.370537 -17.955202 -5.8604498 28.060659
-44.236267 -17.220621 -5.9090266 18.077271
-51.835907 -16.393547 -6.1483665 21.082729
-51.841106 -15.803698 -6.1431937 21.08283
-39.550224 -14.991638 -5.7322063 17.075861
-39.160614 -14.059847 -5.6823378 17.075962
-37.98806 -12.405196 -5.7957888 20.081202
-37.958374 -11.903457 -5.7875981 20.081305
-56.244972 -9.9813795 -5.9504323 15.078186
-54.982609 -9.8308496 -5.8492389 15.07811
-59.085861 -9.5209312 -6.245276 24.063017
-54.422848 -9.0320549 -5.801311 15.078186
-60.498337 -8.489747 -6.2166071 17.084997
-66.810951 -6.5768213 -6.2736659 9.0019121
-54.933758 -6.7541089 -6.0319891 24.063889
-42.637932 -5.4307489 -5.60114 16.08219
-51.159374 -2.5757611 -5.6725664 15.077206
-51.051819 -2.0878878 -5.6623416 15.077282
-47.585548 -1.9928714 -5.6764307 18.085594
-42.177025 -0.55281556 -5.7612748 24.067184
-52.071171 0.51034063 -5.6731091 13.097229
-54.880749 2.1145012 -5.6602921 14.084385
-67.021873 4.1751332 -6.0271401 9.9977245
-66.9272 4.9828148 -6.01722 9.9978266
-47.377857 5.3710055 -5.9114079 24.066475
-45.929398 5.4666891 -5.7707639 24.066526
-44.730991 5.672997 -5.6545739 24.066603
-53.438366 10.138678 -5.6729789 25.053392
-49.878693 11.070474 -5.653194 26.053926
-50.882889 11.405322 -5.6502366 21.069887
-65.820068 12.399846 -6.0258794 13.080944
-51.87516 14.135582 -5.6735306 25.072111
-52.905003 16.794018 -5.6587391 24.072063
-74.421379 23.42518 -6.0267053 9.0009661
-74.223122 23.832132 -6.0132275 9.0010166
-74.06646 24.391182 -6.0033832 9.0010929
-37.264095 -24.909737 -5.0106091 16.011911
-37.349998 -24.688713 -5.4795289 15.015122
-31.414175 -24.279673 -5.4643416 20.010273
-31.0217 -24.438143 -5.4159188 32.038406
-56.878407 -23.480627 -5.5412817 21.060797
-40.92535 -23.482035 -5.004848 25.028362
-28.803869 -23.835344 -5.4096317 31.014004
-56.941269 -23.087402 -5.5322948 21.060898
-33.772179 -22.457859 -5.4478674 32.043274
-31.412258 -22.815065 -5.3072968 25.05695
-29.153391 -23.034964 -5.4445038 20.008791
-28.424479 -22.637661 -5.4208169 24.061726
-40.839985 -21.646803 -5.0231385 26.028997
-37.488445 -21.68784 -4.9506445 17.012449
-33.903072 -22.337471 -5.4476862 32.043365
-32.486164 -22.10343 -5.4464765 21.010956
-29.235117 -22.272181 -5.3262711 32.014591
-26.986731 -21.833639 -5.4253125 16.012297
-37.603405 -21.138367 -4.8976398 17.012577
-35.131676 -21.188137 -5.2001381 14.013511
-30.767443 -21.446592 -5.2659483 33.039371
-30.219965 -20.898354 -5.4116077 20.009386
-27.059856 -21.213604 -5.1192589 32.013523
-25.221685 -20.871941 -5.2737694 36.036915
-35.218044 -20.046371 -5.1006737 14.013613
-33.365288 -20.144344 -5.4738002 30.05838
-40.676029 -19.847416 -4.9818578 27.029644
-33.088768 -19.608238 -5.3267689 33.044155
-31.201838 -19.562845 -5.2849321 34.040318
-28.796045 -19.71792 -5.1884513 26.057484
-25.953102 -19.266474 -5.3194432 24.008307
-55.851109 -18.761278 -5.198844 10.095346
-40.8311 -18.572525 -5.0735531 28.03022
-37.835724 -18.630489 -4.8741813 18.013084
-35.454517 -18.706173 -5.3135614 28.544617
-35.171772 -18.990234 -5.3404002 25.060881
-31.325201 -18.643948 -5.3822479 21.010069
-28.512079 -18.67993 -5.4409943 17.012873
-27.777964 -19.129156 -4.9940171 33.014496
-25.294819 -18.758106 -5.1967525 32.522366
-55.824829 -18.01424 -5.1738086 10.095423
-31.358786 -17.760645 -5.2734442 35.041187
-28.693209 -17.981146 -5.0157161 34.015442
-25.045877 -18.076841 -5.4509797 22.078588
-33.982311 -17.581184 -5.4410272 22.011703
-31.88905 -17.556728 -5.2914038 31.059027
-27.568892 -17.148888 -5.2267404 21.534815
-27.019995 -17.471138 -5.289258 20.510086
-46.432388 -16.393312 -5.5273848 9.9985561
-36.153721 -16.020121 -5.0572948 15.014203
-35.18866 -16.286142 -5.1377258 33.029205
-30.317465 -16.628851 -5.1480489 36.026627
-29.308273 -16.792889 -5.0031586 35.016262
-28.652094 -16.026188 -5.5093789 25.080629
-34.805561 -15.838371 -5.4979439 24.012346
-32.771908 -15.899086 -5.2609897 26.061543
-30.494606 -15.312439 -5.1703548 32.059643
-28.83342 -15.531286 -5.5120139 25.080757
-27.539783 -15.830975 -5.2262955 26.00939
-26.821636 -15.74254 -4.8362546 32.058601
-35.489273 -14.691414 -5.037487 24.522133
-29.954269 -14.99317 -5.2022462 27.520473
-28.532549 -14.588007 -5.2193375 27.010063
-25.467302 -15.124266 -4.9617114 38.013927
-35.077156 -13.854866 -5.4141717 25.012844
-28.987923 -14.19071 -5.3154449 17.012009
-25.925602 -14.093176 -5.0434356 32.011379
-56.3218 -13.238106 -5.5844526 11.096042
-35.394966 -13.221617 -5.1357265 35.030941
-31.702337 -13.480091 -5.2661943 27.062214
-30.693359 -13.357026 -5.0673752 38.028637
-29.307852 -12.843993 -5.162313 28.010744
-26.759104 -13.1104 -4.8864698 40.015781
-31.231897 -12.286276 -5.3737712 20.014137
-31.011316 -12.259551 -5.3667212 20.014061
-26.656473 -12.5585 -5.1998549 26.008501
-35.386555 -11.686898 -5.3298154 26.013454
-27.839573 -11.367479 -5.2068591 27.009251
-25.19286 -11.6162 -5.1268926 30.008457
-35.489857 -10.407215 -5.1798549 22.014439
-29.859699 -10.754715 -5.2279758 18.012495
-26.077246 -10.718256 -5.1172085 31.009108
-35.469795 -9.8192749 -5.1024694 22.014528
-32.221851 -10.169201 -5.3604484 20.014664
-28.546589 -9.6985073 -5.1582913 28.009855
-37.351627 -9.1965714 -5.434814 37.019058
-35.407585 -9.0886412 -5.1005783 27.014118
-33.992733 -9.1285477 -5.363215 20.077881
-31.321095 -9.1959791 -5.1967158 29.011932
-29.814964 -9.0602694 -5.3348808 20.076487
-26.693447 -9.3916979 -5.0426984 32.009686
-37.95784 -8.0532494 -4.9002504 36.025833
-36.963249 -8.7002974 -5.2921076 37.019138
-31.885242 -8.1023483 -5.2341619 30.012499
-29.869019 -8.4314508 -5.3151836 20.076574
-25.00942 -8.1139288 -4.815444 32.008678
-41.534004 -7.5440631 -5.4769058 16.088682
-35.794617 -7.3434157 -5.038805 24.015112
-33.429459 -7.8032308 -5.3417864 21.015348
-32.415298 -7.3911567 -5.5910144 21.081833
-31.183931 -7.8610039 -5.2072024 20.013191
-25.348965 -7.3748717 -5.0876946 31.008219
-53.928799 -6.6626186 -5.1907163 24.048019
-41.476406 -6.8641696 -5.4304953 16.088734
-39.017078 -7.115799 -5.1816635 37.026821
-36.776237 -6.5925593 -5.1594839 25.015686
-35.371376 -7.1445584 -4.9935737 28.014658
-32.424171 -7.0176668 -5.398056 26.047527
-54.185051 -6.0417271 -5.5717959 12.096627
-42.422565 -5.6040401 -5.5830855 16.082138
-38.565868 -5.6016488 -4.9055037 36.030807
-32.21854 -5.7108707 -5.1777067 20.013783
-26.005096 -6.0392141 -5.0111117 32.008793
-42.411449 -5.0723362 -5.5787826 16.082241
-37.146034 -5.0172038 -5.2672601 33.350876
-32.917099 -5.5468826 -5.1464348 32.01379
-32.770531 -5.5981326 -5.1434345 32.013687
-31.127726 -5.3973112 -5.2752671 18.076506
-30.668344 -4.6672597 -4.8982878 32.01265
-29.214256 -4.5298405 -5.1584749 20.078445
-37.270687 -3.6046412 -5.2399721 29.015549
-36.096996 -3.802264 -4.8530254 40.021908
-32.964165 -3.3754139 -5.1323581 21.014338
-26.155773 -3.6606071 -5.148881 24.012642
-37.284595 -2.7472463 -4.914412 32.52478
-33.159203 -3.0121186 -5.2125955 29.014757
-27.250158 -2.5027592 -5.2971292 20.077023
-41.606052 -1.6210681 -5.4896798 17.08931
-37.279114 -1.7071764 -5.1477585 30.016161
-33.866413 -1.7975527 -5.249773 30.015398
-31.917011 -1.7810388 -4.837955 34.014462
-27.257198 -1.7847656 -5.0828934 25.013268
-25.250887 -2.3631091 -5.0141273 22.011047
-36.926441 -1.583771 -5.2041812 22.015987
-36.71793 -1.1705312 -5.1406651 22.015976
-30.448702 -1.0490571 -5.2238326 18.075638
-41.448101 -0.37676477 -5.3944259 17.089413
-37.404976 -0.50317281 -5.0027051 29.517082
-34.477386 -0.79123396 -5.2548418 31.015972
-32.691929 -0.53452086 -4.838079 35.015511
-30.263729 -0.70941192 -5.2005839 18.075687
-28.287571 -0.10348465 -5.0721278 26.013906
-26.569963 -0.64644051 -5.0481787 24.011742
-35.674965 0.50910324 -4.9547224 12.520151
-34.763309 0.73758745 -5.179018 32.016556
-48.079147 1.3998116 -4.9856572 13.089449
-38.484573 1.5487403 -5.1025629 36.045525
-37.02367 1.4378145 -5.0694942 24.016592
-29.269724 1.1596229 -5.0675869 27.01453
-27.637915 1.2393754 -4.9750214 25.01239
-25.745047 0.85680377 -5.0886288 20.077074
-25.576868 1.4335401 -5.0604334 20.077175
-48.055298 1.9556347 -4.9590354 13.089526
-40.311203 2.2440596 -5.3556085 16.08783
-36.96339 1.8964955 -4.8435702 32.017372
-32.267258 1.8986216 -4.9012051 32.015484
-39.722992 2.5816004 -5.4797864 20.08622
-29.809738 2.9104021 -5.0143304 28.015032
-28.563936 3.0173886 -4.939486 26.013027
-31.641472 3.2514992 -4.9065976 36.014721
-25.288052 3.7217903 -5.3289461 21.07769
-43.222618 4.5737114 -5.002739 32.046993
-41.344032 4.2609243 -5.4078751 18.089966
-36.847446 4.4146667 -4.8323841 25.017162
-29.338535 4.2063198 -4.9352694 27.013573
-25.617397 4.7773952 -4.9439001 30.012871
-25.318926 4.2632833 -5.1789966 20.577026
-48.224998 5.1540966 -5.1555195 14.090059
-47.670364 5.2881136 -5.5906606 29.056187
-33.912823 5.2185907 -4.8760872 23.008583
-32.099052 4.854074 -4.8205767 37.015743
-29.234688 5.2580757 -5.1724377 21.078598
-36.730526 6.1131506 -5.4953599 37.01976
-34.442944 5.7123609 -4.9398685 11.99986
-34.217915 6.3028154 -4.9670272 32.0173
-33.196472 6.1327553 -5.1283445 21.047674
-32.666729 5.9729872 -4.8718472 38.016705
-30.112808 6.0205946 -4.8696795 28.014254
-26.519855 5.7045741 -4.9297295 31.013494
-43.260479 6.5273614 -4.9005771 32.048061
-38.086189 7.0609369 -5.3167849 20.581352
-34.703289 6.533731 -4.9373765 36.01881
-33.177082 6.8746881 -4.9512615 22.008635
-27.296095 7.0982928 -4.8544664 32.014137
-27.179291 7.0808916 -4.8539548 32.014061
-26.003012 7.1282082 -4.8682618 30.011969
-25.033817 6.6834798 -5.1659017 28.069548
-48.370987 7.8613062 -5.3018613 15.588013
-46.0975 7.5455465 -5.4255915 15.085013
-39.545918 7.6819811 -5.2873368 17.08843
-36.757416 7.2497621 -5.2826023 29.067404
-34.637794 7.5595837 -5.1313882 30.016857
-55.622135 8.5444355 -5.5728507 24.052795
-40.964287 8.775094 -5.5378222 29.071217
-40.260792 8.304472 -5.367106 32.058041
-36.491184 8.4764977 -5.3691921 32.054157
-34.825451 8.300458 -4.8173862 37.019814
-33.237595 8.1852303 -4.9599152 34.058964
-26.6901 8.09799 -4.8396206 31.012491
-41.019794 9.0928068 -5.3744764 20.090576
-35.71225 9.144351 -4.8468933 29.019989
-35.151802 8.8476038 -5.0911608 31.017479
-34.129223 9.0866585 -4.9338064 24.009314
-31.469929 8.9860115 -4.9327478 35.059753
-29.736168 9.5889425 -5.0592084 27.068312
-27.78343 9.2709084 -5.0254374 21.087452
-51.038746 10.31985 -5.3625159 26.057808
-47.39444 10.081433 -5.175652 15.090725
-40.071369 9.6314945 -4.8119726 37.025993
-36.588783 9.8004007 -4.9976244 30.020603
-35.100716 9.6122484 -4.8258319 38.020752
-34.091408 9.9502811 -5.150465 31.0723
-29.640322 9.9611111 -5.0541801 27.068439
-27.75979 9.8148279 -4.8619251 32.069256
-46.200134 11.133511 -5.015245 15.090649
-36.841785 11.157099 -4.9341092 31.021126
-35.188023 10.680855 -4.9447694 32.018059
-31.035944 10.735461 -4.9795508 32.073025
-25.883495 10.575048 -4.9503164 28.068916
-49.2528 11.641088 -5.4408283 27.05843
-45.972435 11.819503 -4.9598441 15.090725
-36.806355 11.62723 -4.8553438 31.021252
-32.209106 11.951105 -4.9378033 31.072824
-47.251503 12.729689 -5.5481381 28.059032
-46.68314 12.287396 -5.5841427 27.0546
-38.472176 12.784933 -5.146924 18.089006
-36.585587 12.201376 -5.2143469 17.096193
-35.56876 12.354968 -4.9145889 26.010481
-40.886101 12.944031 -5.3083649 20.091179
-40.693199 12.831716 -5.2992139 20.091105
-32.365707 13.57717 -5.0249701 22.088537
-45.640144 13.611098 -5.2654095 15.098393
-38.687332 14.087711 -5.1119008 27.069643
-47.454563 15.084211 -5.5888691 26.072746
-44.622772 15.055017 -5.1057763 15.098495
-38.490223 14.40942 -5.1004601 27.069771
-34.846497 14.753693 -5.0111904 28.070309
-31.798334 14.740212 -4.8964911 29.008902
-25.479044 14.679948 -5.270041 22.077213
-56.211403 15.738915 -5.5340667 22.07151
-53.170673 15.317346 -5.0909629 13.080996
-51.248703 15.977182 -4.9511123 13.081047
-45.405125 15.798399 -5.3125486 16.096462
-32.49437 15.849403 -4.9302402 30.009464
-52.3167 16.498388 -5.3664675 10.998327
-44.154774 16.131632 -5.5203404 27.073391
-40.668343 16.537085 -5.4639544 28.073929
-32.788925 16.781319 -5.047677 24.089182
-52.477825 16.939583 -5.3776364 10.998416
-51.687763 17.592966 -4.8836637 13.09808
-48.036842 17.153263 -5.4708505 25.072636
-40.617908 16.812286 -5.2370009 21.091839
-37.863518 17.157368 -5.0820045 20.089691
-33.76049 17.206493 -5.152504 22.075869
-33.279858 16.931265 -4.912189 31.010111
-55.781754 17.930685 -5.1226754 21.055464
-43.834717 17.636765 -5.3768058 26.073271
-41.068565 18.28442 -5.3449097 27.073854
-44.268017 18.958345 -5.3434277 22.070837
-43.993336 18.555788 -5.3113265 22.070761
-37.805725 18.682646 -5.2413397 24.0769
-31.861263 18.460026 -4.8293271 29.076595
-30.146015 19.084631 -4.8456326 22.087557
-29.557772 18.981405 -4.8519506 30.077312
-28.73704 18.544771 -5.1503654 24.076511
-27.349812 19.057558 -4.8690267 18.080576
-48.889767 19.739607 -5.4276218 15.998455
-38.519569 19.789701 -5.3102393 24.071472
-34.345856 19.900496 -5.2005553 29.076607
-32.442059 19.678741 -4.9854784 25.080837
-31.743542 19.793278 -4.9863262 25.072107
-27.312279 19.82687 -4.900001 26.072617
-27.05233 19.976858 -4.8799257 26.072693
-64.100075 20.397711 -5.0881319 20.069309
-58.672859 20.030293 -5.2492204 13.091075
-51.516609 20.286127 -5.0720057 14.098661
-43.725174 20.156258 -5.2344408 17.097086
-37.391941 20.367247 -5.0080643 20.090267
-63.118843 21.104267 -5.4472094 10.001031
-36.79401 21.407883 -4.8151369 16.089458
-31.014744 21.214647 -4.8798685 17.081959
-60.609341 22.367393 -5.1199698 20.073513
-47.491844 22.341051 -5.3158464 11.99892
-36.839077 21.641943 -4.81777 16.089508
-30.425196 21.659409 -4.9013181 24.0882
-64.056938 23.159182 -5.4958224 20.069895
-60.578163 22.913332 -5.1287313 20.073641
-54.616291 22.786942 -4.8547077 13.00009
-47.498112 22.880762 -5.3129611 11.999022
-32.834927 22.511673 -4.9030561 26.090294
-30.537807 22.559538 -5.0154338 22.086
-29.92561 22.713015 -4.9653306 22.086079
-46.622147 23.971975 -5.3335652 16.999081
-38.897236 23.647488 -4.8575487 15.082248
-38.129845 23.657042 -5.0533447 24.074236
-36.814182 23.402166 -4.9453058 21.090847
-35.818981 23.672256 -4.921761 20.080196
-33.644974 23.888918 -4.9274607 25.074898
-31.317038 23.818474 -4.8761058 20.079887
-29.721937 23.68611 -4.8643637 26.075443
-29.413723 23.942682 -4.8458595 26.075571
-27.509727 23.622787 -4.903985 18.082504
-59.335934 24.650169 -5.4531488 21.074142
-58.447189 24.301973 -4.9188933 20.073463
-55.533039 24.405264 -5.5016074 14.091593
-41.868755 24.060946 -5.1059694 18.097662
-37.863346 24.011169 -5.0407538 24.074364
-31.119535 24.257355 -4.8523149 20.079971
-29.955482 24.414776 -4.8839917 23.581867
-29.560968 24.231737 -4.9459448 22.074909
-27.950739 24.520407 -4.8751974 17.087822
-58.53289 24.881622 -5.1687198 20.573929
-55.618984 24.816898 -5.510942 14.091669
-33.262848 24.86038 -4.8689275 27.091021
-68.644196 -22.064426 -4.3318863 15.062805
-37.928719 -15.328053 -4.5747013 18.014185
-37.926994 -14.580701 -4.3241482 16.014723
-37.824997 -14.005933 -4.2662535 16.014774
-37.925793 -12.938045 -4.6468573 20.014299
-25.450102 -12.962596 -4.7121372 33.059566
-47.412308 -12.642644 -4.222013 10.087585
-47.316925 -11.726271 -4.1870327 10.087662
-38.111107 -11.38717 -4.2585301 17.015312
-38.072895 -10.759108 -4.3860197 19.015167
-25.101093 -9.8928204 -4.7899017 35.00774
-61.966244 -9.0254869 -4.06745 17.063246
-38.174168 -8.3992062 -4.172874 18.015902
-34.949665 -8.3908777 -4.7649369 36.018211
-65.741081 -7.276629 -4.3923841 17.064041
-47.872906 -7.4965596 -4.529717 11.088241
-37.144676 -7.9187036 -4.2218151 32.019703
-65.789948 -6.9302077 -4.3906789 17.064117
-47.862556 -6.8264418 -4.5048542 11.088317
-37.085758 -6.4500327 -4.2005877 33.020569
-34.997925 -7.0015326 -4.7142811 37.019073
-36.568764 -6.0262523 -4.6105576 37.026821
-25.764366 -6.3935084 -4.7034187 33.009472
-37.890129 -5.334372 -4.2421603 21.01589
-37.284164 -5.0186024 -4.1845322 34.021622
-34.864136 -5.4908962 -4.6332316 38.02
-26.947411 -5.5290451 -4.7483702 34.010548
-38.074318 -4.7438626 -4.0287519 33.028294
-37.310009 -4.0325375 -4.727212 37.031731
-36.710999 -4.782207 -4.7076521 38.027851
-34.91024 -4.2324953 -4.6103859 37.51918
-27.807035 -4.5057869 -4.7402234 35.011467
-48.011036 -3.3024566 -4.7215152 12.088786
-39.181664 -3.6678457 -4.0993385 32.032372
-38.096848 -3.4045248 -4.259449 29.022627
-37.093555 -3.8063817 -4.1429954 33.377785
-36.460819 -3.6884546 -4.6692066 39.028694
-47.98777 -2.679184 -4.6951118 12.088861
-38.775768 -2.4982643 -4.2148294 34.031685
-36.281216 -2.6193449 -4.702095 40.029579
-34.961216 -2.9362774 -4.4942436 23.50843
-31.215015 -2.7057326 -4.7815347 33.013641
-25.32328 -2.9398835 -4.6629858 33.008709
-27.368235 -1.7060341 -4.7874575 36.011051
-26.219988 -2.1773667 -4.711206 34.009529
-39.449314 -1.1479588 -4.3676152 34.03429
-37.755505 -1.5428281 -4.3105769 25.016455
-36.939175 -1.0921313 -4.1221137 34.020622
-34.717762 -1.4938741 -4.5434356 38.019108
-27.260162 -1.1221621 -4.702076 35.010578
-37.026207 -0.72706348 -4.2411962 36.022144
-35.335632 -0.15020919 -4.4101491 16.008816
-34.779293 -0.28442612 -4.4615612 39.020077
-28.03952 -0.32336617 -4.7049761 37.012028
-39.542938 0.058921345 -4.4955602 35.03521
-37.185345 0.41733807 -4.2098765 33.771271
-35.417149 0.63547659 -4.334847 16.008919
-37.172691 1.8888119 -4.193378 32.520935
-35.157513 1.6869495 -4.7825465 32.016308
-37.191166 3.7013168 -4.0446882 28.018309
-35.14183 3.9147751 -4.621963 33.017273
-32.629204 3.9062355 -4.7804298 33.016335
-56.398064 5.298274 -4.1199217 9.098671
-43.768837 5.3424535 -4.7977009 31.047359
-37.080425 5.2554932 -4.1356778 29.019564
-35.338303 5.5074368 -4.31494 25.513777
-28.404791 5.50804 -4.7146845 36.013874
-51.028656 6.2356739 -4.7995744 16.078339
-36.850235 6.0814438 -4.2263718 22.01981
-36.44828 5.9593048 -4.4782209 28.519369
-36.98283 6.5383105 -4.7480502 26.017759
-29.114248 6.9040027 -4.6395965 37.014877
-51.295273 7.2895517 -4.7699485 24.056728
-43.465515 7.4081564 -4.0639052 20.569723
-39.796871 7.2572117 -4.6283455 37.026859
-37.109421 7.9057188 -4.1335363 27.520628
-36.763519 7.3289919 -4.2905869 32.020416
-29.712839 7.9783955 -4.6497726 38.015766
-43.372654 8.5395746 -4.2309484 28.049118
-37.071915 8.444313 -4.395524 25.519417
-36.739326 8.7105865 -4.0294294 24.067944
-29.453899 8.0203447 -4.7897439 32.071983
-25.392248 8.5827065 -4.5877571 32.36631
-39.942822 9.5790834 -4.7917547 37.025917
-36.743584 8.886342 -4.2503328 33.021267
-30.236538 9.0852966 -4.5668969 39.016685
-27.499681 9.5302038 -4.7541447 32.013195
-26.351671 8.8302307 -4.6992855 35.055923
-36.871437 10.288792 -4.1365924 29.521557
-33.504154 10.359862 -4.7345271 24.009186
-28.948469 10.034486 -4.7154274 32.072472
-26.364864 10.315208 -4.5133219 33.013935
-43.53072 10.886621 -4.2130356 15.091549
-37.144375 10.721809 -4.1880889 27.771202
-36.75901 10.723856 -4.020596 37.025944
-35.84446 10.965449 -4.7605815 30.020554
-27.447083 11.198181 -4.5478258 34.014885
-25.738312 10.718906 -4.5479789 32.012123
-25.151299 10.465121 -4.4521046 33.073441
-56.162109 11.491919 -4.0220137 18.053625
-36.757839 11.771071 -4.1289206 35.023136
-34.480034 11.703869 -4.7538605 25.009846
-33.062191 11.204344 -4.7643714 32.016991
-37.317596 12.481669 -4.2642794 31.35647
-33.766731 12.440208 -4.7372675 16.079346
-28.385332 12.195572 -4.5495653 35.015808
-26.741405 12.592481 -4.417882 33.013107
-51.916424 12.939931 -4.0935621 20.058615
-38.076431 13.064261 -4.6494422 36.044785
-37.074028 13.095318 -4.5091743 31.922583
-34.840343 13.433635 -4.6598959 32.020756
-34.359303 12.963713 -4.7335258 36.021645
-33.128578 13.168144 -4.645268 24.548672
-27.756374 13.486755 -4.448514 34.014057
-55.537956 13.902266 -4.2233009 15.026279
-55.183167 13.67637 -4.0462661 9.9981976
-39.415985 13.877753 -4.2326303 37.03088
-37.086536 13.771875 -4.4631958 36.022614
-29.252283 14.123631 -4.6526279 24.507919
-64.308838 14.873148 -4.1329327 17.068096
-51.652248 14.974027 -4.4065495 21.059307
-37.244843 14.762369 -4.274704 34.690491
-36.390594 14.815854 -4.4290342 29.019077
-35.807678 14.920937 -4.6982546 27.011089
-34.577408 14.689847 -4.6246042 37.022671
-34.293652 14.438581 -4.68818 34.018913
-28.618729 14.516222 -4.4390054 35.014977
-25.001499 14.532035 -4.4499025 38.013416
-56.181843 15.402107 -4.7541451 20.054733
-34.891075 15.885237 -4.6066642 36.022179
-29.997379 15.920111 -4.5015402 37.016438
-25.804897 15.43596 -4.3758984 39.014336
-55.405758 16.774862 -4.3731441 10.998866
-37.058807 16.393227 -4.2720852 36.02478
-36.573856 16.34668 -4.3782525 30.019669
-30.922758 16.385111 -4.5797009 36.019157
-29.230595 16.511169 -4.7011642 17.080025
-25.210493 16.462212 -4.3630424 38.012413
-60.502201 17.336786 -4.2810998 18.072344
-55.390785 17.210073 -4.3603587 10.998956
-53.567318 17.483067 -4.1287289 11.081719
-40.587597 17.588074 -4.3975716 32.046268
-37.173584 17.574697 -4.1058936 35.02597
-36.56292 16.944088 -4.6448345 32.019867
-35.629955 17.241255 -4.4632521 34.02269
-30.679266 16.93564 -4.5464005 38.017403
-64.439384 17.60568 -4.5959811 18.068687
-36.484871 18.073193 -4.1947031 35.022831
-35.583195 18.072113 -4.3894219 28.011688
-34.907127 17.946764 -4.2648773 34.02256
-31.546192 17.979481 -4.4819913 37.02021
-40.766094 18.736479 -4.2055283 31.046726
-36.982666 18.966179 -4.3255582 40.02636
-35.725601 18.790289 -4.3627849 35.023483
-32.86393 18.587988 -4.6466293 16.081366
-32.399948 19.000233 -4.5783062 27.051313
-27.532028 19.141472 -4.7969575 31.077885
-25.094738 19.033363 -4.7011061 32.078526
-60.580593 19.87192 -4.7484303 20.072937
-58.73703 19.660847 -4.045598 17.072319
-54.869987 19.786938 -4.550715 11.999437
-42.901505 19.939632 -4.747283 14.081542
-40.579735 19.841541 -4.4272709 32.047268
-36.496456 19.735041 -4.2657156 27.109192
-33.415852 19.233105 -4.6639223 32.010685
-32.541039 19.736607 -4.5650496 36.018272
-31.657345 19.529444 -4.6000152 32.009621
-26.029203 19.504236 -4.5452285 14.001051
-60.513939 20.394014 -4.7520285 20.073065
-54.844822 20.203686 -4.5367799 11.999527
-40.57074 20.077461 -4.441359 32.047371
-36.537849 20.290977 -4.2434244 31.512451
-32.380638 20.361885 -4.5006561 28.559444
-31.769001 20.598734 -4.5123911 18.096771
-36.576096 21.375195 -4.5707216 31.039877
-35.677963 20.857803 -4.4073653 36.023335
-33.093193 21.234859 -4.4686823 38.521126
-32.473228 21.422255 -4.5004768 33.010601
-58.87492 21.966257 -4.4745321 18.072868
-36.526684 21.604374 -4.5679784 37.024258
-33.734928 22.362455 -4.5249209 38.020267
-29.409372 22.147871 -4.6248989 16.087173
-45.821293 23.011143 -4.3863435 16.092445
-40.607815 23.132515 -4.2393212 37.034214
-36.540131 22.993565 -4.3626385 31.011696
-33.236771 22.44945 -4.5255766 34.011417
-36.228436 23.461657 -4.0207348 35.022606
-28.574263 23.253038 -4.4348488 36.008022
-26.013206 23.781105 -4.7362108 27.07613
-44.491375 24.441 -4.5444179 13.082928
-36.53091 24.470413 -4.3783479 39.026016
-30.682911 24.471737 -4.4207163 20.097471
-29.173927 24.515762 -4.5356154 32.544167
-28.222818 24.49091 -4.7823448 29.088665
-33.398968 24.823536 -4.2218499 35.012333
-28.253345 -24.865068 -3.269429 22.768528
-27.998714 -24.806948 -3.2565985 21.039843
-26.653118 -24.802635 -3.2050297 15.011799
-25.066351 -24.999275 -3.2325449 9.0123062
-56.911438 -24.430691 -3.3791063 15.060572
-41.064388 -24.274523 -3.6585677 17.028147
-37.150898 -24.491346 -3.4258351 8.0138445
-28.283573 -24.296177 -3.2376337 22.58725
-27.864784 -24.494362 -3.2467349 20.53437
-26.628208 -24.407505 -3.2058349 20.031273
-56.961071 -23.922087 -3.3696585 15.060699
-28.383503 -23.744843 -3.2123687 22.195839
-27.603863 -23.878357 -3.2612817 20.785536
-26.671776 -23.799212 -3.2173331 20.03104
-41.015919 -22.934969 -3.7543337 18.028595
-37.356522 -22.593834 -3.3438673 9.0152855
-28.445179 -22.834572 -3.2274377 22.00238
-27.364876 -22.798223 -3.200953 23.042723
-27.113815 -22.576235 -3.2124915 16.011253
-37.500744 -22.130463 -3.3186488 9.0153618
-28.210094 -21.798084 -3.2480237 23.02383
-27.758087 -22.167328 -3.2117274 22.227108
-40.789131 -20.870621 -3.7903798 20.029289
-28.330713 -21.418797 -3.226851 22.454319
-27.653315 -21.237141 -3.2038634 8.0016098
-37.769932 -20.123976 -3.5943134 12.012806
-28.269461 -20.226423 -3.2100568 23.295357
-40.959789 -19.560234 -3.8522284 20.029863
-37.708466 -19.527966 -3.5429413 10.513624
-28.441391 -19.84613 -3.205287 20.402405
-37.603451 -18.757692 -3.4866083 9.0144033
-40.980495 -17.918287 -3.896841 21.03056
-37.672867 -18.100613 -3.4481077 9.0144796
-38.056904 -17.047747 -3.62625 13.013471
-28.475275 -17.522051 -3.213604 25.044418
-38.099293 -16.614782 -3.5921516 13.013573
-38.056999 -14.422205 -3.5965095 14.014017
-43.20277 -13.878373 -3.4364142 10.088463
-38.076473 -14.060635 -3.5661371 14.014107
-28.135754 -13.45718 -3.2353466 9.0003729
-62.011459 -11.882456 -3.7135525 16.062572
-38.111935 -11.624149 -3.5443306 15.014709
-26.227699 -10.533934 -3.2972145 33.519981
-65.375252 -9.9975557 -3.9560978 16.06344
-36.799812 -8.9228249 -3.8605902 29.018967
-37.042175 -8.1809645 -3.9334221 30.019506
-37.193832 -7.4590425 -3.580245 28.020016
-30.196081 -7.9162831 -3.3032012 34.022964
-25.968122 -7.388906 -3.2696381 34.5144
-59.537483 -6.4295321 -3.3872948 12.085295
-43.620811 -7.1561832 -3.6713326 11.089171
-38.00058 -6.8562193 -3.5766137 29.026714
-37.176552 -6.6922398 -3.2541177 26.020489
-30.480165 -7.0461874 -3.2540698 31.036835
-26.940184 -6.649972 -3.2488999 36.034325
-26.049446 -7.036305 -3.2672715 36.015324
-59.853382 -5.769937 -3.4116516 12.085423
-54.083553 -5.9491854 -3.3483844 17.048248
-38.120483 -5.9356732 -3.9114549 31.741695
-37.316463 -6.1585813 -3.7200954 30.354219
-30.559286 -6.0243874 -3.2308309 31.039835
-29.996841 -5.8724213 -3.2947359 36.025871
-26.140598 -6.1708207 -3.2794189 36.013504
-38.262627 -5.3013802 -3.7152462 31.027929
-37.230412 -4.8852377 -3.2920239 28.021715
-30.534962 -5.0110083 -3.2462208 35.027744
-30.269558 -4.9926476 -3.2616184 35.030411
-26.028364 -5.3286281 -3.2119021 36.012383
-38.972603 -4.7967277 -3.6781638 29.031509
-37.948635 -4.5486708 -3.5087137 24.022013
-36.630638 -4.7555857 -3.8135381 29.018097
-30.665108 -4.6000409 -3.3094764 36.028835
-30.21026 -4.3331017 -3.2711718 36.030396
-26.179459 -4.585052 -3.2464099 34.511353
-39.111679 -3.8869002 -3.7857721 30.032204
-36.942211 -3.6156201 -3.2108357 25.018957
-31.551258 -3.7716553 -3.2635608 36.027855
-30.760714 -3.4436436 -3.2560334 34.037754
-30.276585 -3.5458114 -3.252511 36.026253
-39.41663 -3.0712729 -3.884372 31.032852
-37.773438 -2.5919056 -3.584727 18.516607
-37.076111 -2.928448 -3.57231 28.519453
-31.706947 -2.9170291 -3.2576156 36.026329
-30.506035 -2.8125358 -3.2719607 36.033443
-30.048943 -2.8391395 -3.2263222 36.018005
-43.395084 -2.0877433 -3.7852328 12.089667
-39.375572 -2.0197213 -3.5610988 29.033642
-37.697083 -2.1297598 -3.850749 20.017189
-37.083572 -2.0579691 -3.6013873 29.620033
-31.5797 -2.2248893 -3.2111526 36.025269
-31.03311 -2.2680621 -3.2574456 36.026966
-43.262642 -1.1587003 -3.7404985 12.089745
-39.264191 -0.90597218 -3.3769157 28.034489
-37.75127 -0.90935737 -3.2664926 18.016687
-37.318565 -1.146827 -3.8645575 16.016226
-31.46303 -1.4059211 -3.2494085 36.019711
-30.412584 -1.3732753 -3.2002528 36.01823
-30.186096 -1.3588744 -3.2717128 38.772041
-26.325117 -1.4538592 -3.221138 36.011417
-37.659039 -0.10163792 -3.7866199 21.017769
-30.42289 -0.26547787 -3.230176 38.020691
-30.375559 -0.34973019 -3.2682648 36.017166
-31.513168 0.59026027 -3.2354181 36.019222
-29.893932 0.19204502 -3.2948568 40.019653
-37.242706 1.2223458 -3.2799566 25.895605
-31.534374 1.5217819 -3.212446 36.01947
-37.211193 2.1333616 -3.5393333 24.687489
-31.815613 1.866796 -3.2535729 36.019821
-66.1661 2.8494267 -3.4156511 15.066257
-48.012535 2.5406699 -3.9834509 24.056742
-43.541985 2.736306 -3.3922987 22.045969
-37.245148 3.1962206 -3.5220625 34.025681
-31.581425 2.5437095 -3.2061288 36.019928
-43.246666 3.4950037 -3.9555738 13.090334
-31.661249 3.2129424 -3.2069044 36.020409
-30.575624 3.3461576 -3.2019844 36.019024
-43.490574 4.0868583 -3.7631435 18.56855
-37.25267 4.3585157 -3.5552325 27.522474
-43.913628 4.9171782 -3.7615936 25.047132
-37.450478 5.7030039 -3.4239774 24.019978
-37.077904 7.0127339 -3.7963016 29.897589
-35.412731 6.4361544 -3.9949286 17.009542
-55.871624 7.3479114 -3.2763374 16.052423
-37.028877 7.9612885 -3.9967711 37.026783
-37.32756 8.6716652 -3.7119446 25.019997
-36.756989 8.3049841 -3.6232541 35.027061
-55.931297 9.4701786 -3.6447654 17.053049
-37.921329 9.4514627 -3.6533794 36.037052
-37.214516 9.1381121 -3.6846228 29.521677
-35.724007 9.3016376 -3.9126077 18.010065
-51.883652 9.6093836 -3.4758475 18.057495
-48.152508 10.162719 -3.2750654 9.0908871
-37.101608 9.9942322 -3.6461306 29.023619
-36.619286 9.6547985 -3.2057726 33.028419
-48.056255 10.690221 -3.2558701 9.0909634
-37.877007 10.512109 -3.8394878 37.037975
-37.040775 10.504875 -3.3766961 29.275085
-37.620819 11.414463 -3.3585935 24.022814
-36.777683 11.317253 -3.3000832 33.528366
-64.318619 12.212935 -3.6778347 16.067505
-60.393105 12.402954 -3.4619927 16.071144
-37.659401 12.594254 -3.3458109 25.023388
-36.893238 12.33271 -3.9699528 26.021534
-36.531044 12.36701 -3.2514155 33.027531
-35.884232 12.522991 -3.7758422 20.010666
-37.807377 13.56266 -3.4118762 34.040459
-36.625717 13.257667 -3.5091934 32.026833
-37.611038 13.897515 -3.3323033 26.024023
-37.000053 13.829842 -3.642066 31.529169
-36.605057 14.020696 -3.501703 36.03009
-53.288246 14.699537 -3.5545874 10.081202
-37.635616 14.735271 -3.5902691 35.041382
-37.194267 14.710653 -3.5466018 32.623566
-40.610714 15.963797 -3.7235327 29.045486
-37.150558 15.647091 -3.6458893 29.856747
-35.96439 15.309958 -3.6052263 20.011255
-37.341408 16.39397 -3.3495917 28.773607
-58.586205 17.117073 -3.6149163 16.071693
-37.230972 17.232021 -3.3014827 32.275108
-36.746548 17.117449 -3.2441843 35.034225
-37.19891 18.150242 -3.538929 34.036232
-35.890488 18.081696 -3.4297781 21.011871
-37.113331 18.890451 -3.699183 35.533539
-53.0826 19.424732 -3.9626584 10.086919
-40.974136 19.699892 -3.9526098 9.9977503
-37.150093 19.737061 -3.5796237 33.525688
-36.967964 20.734821 -3.391958 29.024088
-41.071598 21.19528 -3.645072 27.047657
-37.097435 21.327751 -3.6807077 37.031017
-37.015297 22.157776 -3.4747691 35.281555
-36.62006 21.611347 -3.3093567 28.021883
-40.765629 22.830395 -3.9076023 28.048389
-37.296127 22.911877 -3.3156674 33.107986
-41.988682 23.704369 -3.4454823 24.05076
-37.074883 23.654877 -3.5565176 37.782639
-36.757339 23.979824 -3.3519382 32.359188
-64.899391 24.831137 -3.3043044 5.0019011
-63.900234 24.914505 -3.3302252 15.070271
-29.062603 -24.943048 -3.0586066 19.01392
-28.521465 -24.853479 -3.0961785 20.567793
-26.795727 -24.854481 -3.1092563 10.508333
-25.664757 -24.917408 -3.117136 9.0098925
-25.086662 -24.935963 -3.1249838 19.523737
-29.925135 -24.205141 -2.9799774 18.057877
-29.1022 -24.517681 -2.7461698 19.483746
-28.455612 -24.596029 -3.0960946 21.039715
-27.696463 -24.354877 -3.1591706 14.533066
-26.626644 -24.61512 -3.1552379 15.815122
-25.963634 -24.246048 -3.1043577 12.271132
-25.311428 -24.55603 -3.0752728 10.063728
-41.042789 -23.610464 -2.5782707 12.028375
-29.759497 -23.282787 -2.8921089 18.057816
-28.991894 -23.55719 -3.0585072 21.02449
-28.629642 -23.79838 -3.0503783 21.0774
-27.859608 -23.398006 -3.1180706 9.5097713
-26.753498 -23.583466 -3.1560595 15.893421
-25.920767 -23.255297 -3.1532085 20.528187
-25.166306 -23.823959 -3.0825424 14.772346
-29.645382 -22.697638 -2.7327023 18.057545
-28.946039 -22.862686 -3.009798 20.960548
-28.588005 -22.860977 -3.0279391 21.289803
-27.324724 -22.502146 -3.1837366 22.46731
-26.530518 -22.65439 -3.1526523 21.033361
-25.999779 -22.915199 -3.1640773 21.208035
-25.364532 -22.95813 -3.1413293 17.456699
-52.458759 -22.371021 -3.0913672 10.074215
-41.00029 -21.799286 -2.7072158 13.029012
-29.71147 -21.98834 -2.8494761 14.535789
-29.133005 -21.960569 -3.0592883 21.986099
-28.53355 -21.791901 -3.1127005 22.04063
-27.36964 -22.168461 -3.1735673 22.571468
-27.002146 -22.155998 -3.1622977 21.316711
-26.17453 -22.257942 -3.1209691 19.281185
-25.189249 -21.70285 -3.1161733 23.883413
-29.613745 -21.225027 -2.5967247 10.549793
-29.177511 -21.209457 -3.0381877 21.891947
-28.581072 -21.186447 -3.0926499 22.042997
-27.619148 -21.031391 -3.1746931 18.71142
-26.911747 -21.162361 -3.1432114 22.414026
-25.887787 -21.271294 -3.123282 20.52951
-25.251369 -21.441338 -3.1093867 22.024494
-29.624971 -20.165327 -2.9318757 8.0144463
-29.14106 -20.258411 -2.9694257 21.890667
-28.590326 -20.632698 -3.0843825 22.068932
-27.544605 -20.469288 -3.1606672 21.096167
-26.889137 -20.522797 -3.1492352 22.315516
-26.134949 -20.640472 -3.1059103 21.713356
-25.585737 -20.788483 -3.0364585 10.007473
-40.979805 -19.980844 -2.7705569 14.029709
-29.734545 -19.607431 -2.4622591 10.086937
-29.121979 -19.547012 -3.0357745 21.983685
-28.633217 -19.759911 -3.1044044 22.665689
-27.332676 -19.588593 -3.1354656 19.587637
-26.848379 -19.507046 -3.1060874 20.658176
